-7.938850000000000406e+00 -5.417769999999999975e+00 4.627500000000000000e+02
-1.000000000000000000e+00 0.000000000000000000e+00 4.627500000000000000e+02
-7.938850000000000406e+00 5.417769999999999975e+00 4.627500000000000000e+02
-2.598999999999999844e+01 8.000000000000000000e+00 2.056670000000000016e+02
-2.598999999999999844e+01 8.000000000000000000e+00 2.570830000000000268e+02
-2.598999999999999844e+01 8.000000000000000000e+00 3.085000000000000000e+02
-2.598999999999999844e+01 8.000000000000000000e+00 3.599169999999999732e+02
-2.598999999999999844e+01 8.000000000000000000e+00 4.113330000000000268e+02
-7.938850000000000406e+00 -5.417769999999999975e+00 1.542500000000000000e+02
-1.000000000000000000e+00 0.000000000000000000e+00 1.542500000000000000e+02
-7.938850000000000406e+00 5.417769999999999975e+00 1.542500000000000000e+02
-2.598999999999999844e+01 -8.000000000000000000e+00 2.056670000000000016e+02
-2.598999999999999844e+01 -8.000000000000000000e+00 2.570830000000000268e+02
-2.598999999999999844e+01 -8.000000000000000000e+00 3.085000000000000000e+02
-2.598999999999999844e+01 -8.000000000000000000e+00 3.599169999999999732e+02
-2.598999999999999844e+01 -8.000000000000000000e+00 4.113330000000000268e+02
-7.938850000000000406e+00 -5.417769999999999975e+00 4.113330000000000268e+02
-7.938850000000000406e+00 -5.417769999999999975e+00 3.599169999999999732e+02
-7.938850000000000406e+00 -5.417769999999999975e+00 3.085000000000000000e+02
-7.938850000000000406e+00 -5.417769999999999975e+00 2.570830000000000268e+02
-7.938850000000000406e+00 -5.417769999999999975e+00 2.056670000000000016e+02
-1.000000000000000000e+00 0.000000000000000000e+00 4.113330000000000268e+02
-1.000000000000000000e+00 0.000000000000000000e+00 3.599169999999999732e+02
-1.000000000000000000e+00 0.000000000000000000e+00 3.085000000000000000e+02
-1.000000000000000000e+00 0.000000000000000000e+00 2.570830000000000268e+02
-1.000000000000000000e+00 0.000000000000000000e+00 2.056670000000000016e+02
-7.938850000000000406e+00 5.417769999999999975e+00 4.113330000000000268e+02
-7.938850000000000406e+00 5.417769999999999975e+00 3.599169999999999732e+02
-7.938850000000000406e+00 5.417769999999999975e+00 3.085000000000000000e+02
-7.938850000000000406e+00 5.417769999999999975e+00 2.570830000000000268e+02
-7.938850000000000406e+00 5.417769999999999975e+00 2.056670000000000016e+02
-6.895430000000000348e+01 0.000000000000000000e+00 4.627500000000000000e+02
-6.748160000000000025e+01 4.817040000000000433e+00 4.627500000000000000e+02
-6.748160000000000025e+01 4.817040000000000433e+00 6.010000000000000000e+02
-6.895430000000000348e+01 0.000000000000000000e+00 6.010000000000000000e+02
-6.748160000000000025e+01 4.817040000000000433e+00 5.088330000000000268e+02
-6.748160000000000025e+01 4.817040000000000433e+00 5.549170000000000300e+02
-6.895430000000000348e+01 0.000000000000000000e+00 5.157530000000000427e+02
-6.748160000000000025e+01 -4.817040000000000433e+00 4.627500000000000000e+02
-6.748160000000000025e+01 -4.817040000000000433e+00 6.010000000000000000e+02
-6.748160000000000025e+01 -4.817040000000000433e+00 5.155729999999999791e+02
-2.598999999999999844e+01 -8.000000000000000000e+00 4.627500000000000000e+02
-9.532920000000000016e+01 0.000000000000000000e+00 6.010000000000000000e+02
-9.532920000000000016e+01 0.000000000000000000e+00 6.170000000000000000e+02
-6.748160000000000025e+01 -4.817040000000000433e+00 6.170000000000000000e+02
-2.598999999999999844e+01 -8.000000000000000000e+00 6.170000000000000000e+02
-2.598999999999999844e+01 -8.000000000000000000e+00 5.013120000000000118e+02
-2.598999999999999844e+01 -8.000000000000000000e+00 5.398750000000000000e+02
-2.598999999999999844e+01 -8.000000000000000000e+00 5.784379999999999882e+02
-2.598999999999999844e+01 8.000000000000000000e+00 4.627500000000000000e+02
-2.598999999999999844e+01 8.000000000000000000e+00 6.170000000000000000e+02
-6.748160000000000025e+01 4.817040000000000433e+00 6.170000000000000000e+02
-2.598999999999999844e+01 8.000000000000000000e+00 5.013120000000000118e+02
-2.598999999999999844e+01 8.000000000000000000e+00 5.398750000000000000e+02
-2.598999999999999844e+01 8.000000000000000000e+00 5.784379999999999882e+02
-7.938880000000000159e+00 -5.417779999999999596e+00 6.170000000000000000e+02
-1.000000000000000000e+00 4.656729999999999713e-05 6.170000000000000000e+02
-7.938880000000000159e+00 5.417779999999999596e+00 6.170000000000000000e+02
-7.938850000000000406e+00 5.417769999999999975e+00 5.013120000000000118e+02
-7.938850000000000406e+00 5.417769999999999975e+00 5.398750000000000000e+02
-7.938850000000000406e+00 5.417769999999999975e+00 5.784379999999999882e+02
-1.000000000000000000e+00 0.000000000000000000e+00 5.013120000000000118e+02
-1.000000000000000000e+00 0.000000000000000000e+00 5.398750000000000000e+02
-1.000000000000000000e+00 0.000000000000000000e+00 5.784379999999999882e+02
-7.938850000000000406e+00 -5.417769999999999975e+00 5.013120000000000118e+02
-7.938850000000000406e+00 -5.417769999999999975e+00 5.398750000000000000e+02
-7.938850000000000406e+00 -5.417769999999999975e+00 5.784379999999999882e+02
-6.895430000000000348e+01 0.000000000000000000e+00 1.542500000000000000e+02
-6.748160000000000025e+01 4.817040000000000433e+00 1.542500000000000000e+02
-6.895430000000000348e+01 0.000000000000000000e+00 1.190000000000000000e+02
-6.748160000000000025e+01 4.817040000000000433e+00 1.190000000000000000e+02
-6.748160000000000025e+01 -4.817040000000000433e+00 1.542500000000000000e+02
-6.748160000000000025e+01 -4.817040000000000433e+00 1.190000000000000000e+02
-9.532920000000000016e+01 0.000000000000000000e+00 1.190000000000000000e+02
-2.598999999999999844e+01 -8.000000000000000000e+00 1.542500000000000000e+02
-2.598999999999999844e+01 -8.000000000000000000e+00 0.000000000000000000e+00
-6.748160000000000025e+01 -4.817040000000000433e+00 0.000000000000000000e+00
-9.532920000000000016e+01 0.000000000000000000e+00 0.000000000000000000e+00
-2.598999999999999844e+01 -8.000000000000000000e+00 3.856250000000000000e+01
-2.598999999999999844e+01 -8.000000000000000000e+00 7.712500000000000000e+01
-2.598999999999999844e+01 -8.000000000000000000e+00 1.156880000000000024e+02
-9.532920000000000016e+01 0.000000000000000000e+00 5.950000000000000000e+01
-6.748160000000000025e+01 -4.817040000000000433e+00 1.646959999999999980e+01
-6.748160000000000025e+01 -4.817040000000000433e+00 5.950000000000000000e+01
-6.748160000000000025e+01 -4.817040000000000433e+00 1.031880000000000024e+02
-5.232900000000000063e+01 -6.526119999999999699e+00 2.263070000000000093e+01
-5.802089999999999748e+01 -5.958450000000000024e+00 6.549620000000000175e+01
-5.820080000000000098e+01 -5.939049999999999940e+00 9.002740000000000009e+01
-2.598999999999999844e+01 8.000000000000000000e+00 1.542500000000000000e+02
-6.748160000000000025e+01 4.817040000000000433e+00 0.000000000000000000e+00
-2.598999999999999844e+01 8.000000000000000000e+00 0.000000000000000000e+00
-2.598999999999999844e+01 8.000000000000000000e+00 3.856250000000000000e+01
-2.598999999999999844e+01 8.000000000000000000e+00 7.712500000000000000e+01
-2.598999999999999844e+01 8.000000000000000000e+00 1.156880000000000024e+02
-6.748160000000000025e+01 4.817040000000000433e+00 1.024909999999999997e+02
-6.748160000000000025e+01 4.817040000000000433e+00 5.950000000000000000e+01
-6.748160000000000025e+01 4.817040000000000433e+00 1.918009999999999948e+01
-7.938880000000000159e+00 -5.417779999999999596e+00 0.000000000000000000e+00
-1.000000000000000000e+00 -9.155740000000000536e-05 0.000000000000000000e+00
-7.938860000000000028e+00 5.417769999999999975e+00 0.000000000000000000e+00
-7.938850000000000406e+00 -5.417769999999999975e+00 1.156880000000000024e+02
-7.938850000000000406e+00 -5.417769999999999975e+00 7.712500000000000000e+01
-7.938850000000000406e+00 -5.417769999999999975e+00 3.856250000000000000e+01
-1.000000000000000000e+00 0.000000000000000000e+00 1.156880000000000024e+02
-1.000000000000000000e+00 0.000000000000000000e+00 7.712500000000000000e+01
-1.000000000000000000e+00 0.000000000000000000e+00 3.856250000000000000e+01
-7.938850000000000406e+00 5.417769999999999975e+00 1.156880000000000024e+02
-7.938850000000000406e+00 5.417769999999999975e+00 7.712500000000000000e+01
-7.938850000000000406e+00 5.417769999999999975e+00 3.856250000000000000e+01
-6.748160000000000025e+01 4.817040000000000433e+00 1.862779999999999916e+02
-6.748160000000000025e+01 4.817040000000000433e+00 2.250480000000000018e+02
-6.748160000000000025e+01 4.817040000000000433e+00 2.570830000000000268e+02
-6.748160000000000025e+01 4.817040000000000433e+00 2.868179999999999836e+02
-6.748160000000000025e+01 4.817040000000000433e+00 3.301340000000000146e+02
-6.748160000000000025e+01 4.817040000000000433e+00 3.599169999999999732e+02
-6.748160000000000025e+01 4.817040000000000433e+00 3.941940000000000168e+02
-6.748160000000000025e+01 4.817040000000000433e+00 4.284719999999999800e+02
-6.748160000000000025e+01 -4.817040000000000433e+00 1.862779999999999916e+02
-6.748160000000000025e+01 -4.817040000000000433e+00 2.228060000000000116e+02
-6.748160000000000025e+01 -4.817040000000000433e+00 2.570830000000000268e+02
-6.748160000000000025e+01 -4.817040000000000433e+00 2.838690000000000282e+02
-6.748160000000000025e+01 -4.817040000000000433e+00 3.285600000000000023e+02
-6.748160000000000025e+01 -4.817040000000000433e+00 3.599169999999999732e+02
-6.748160000000000025e+01 -4.817040000000000433e+00 3.931519999999999868e+02
-6.748160000000000025e+01 -4.817040000000000433e+00 4.332710000000000150e+02
-6.895430000000000348e+01 0.000000000000000000e+00 1.868300000000000125e+02
-6.895430000000000348e+01 0.000000000000000000e+00 2.217259999999999991e+02
-6.895430000000000348e+01 0.000000000000000000e+00 2.468000000000000114e+02
-6.895430000000000348e+01 0.000000000000000000e+00 2.816680000000000064e+02
-6.895430000000000348e+01 0.000000000000000000e+00 3.085000000000000000e+02
-6.895430000000000348e+01 0.000000000000000000e+00 3.350079999999999814e+02
-6.895430000000000348e+01 0.000000000000000000e+00 3.701999999999999886e+02
-6.895430000000000348e+01 0.000000000000000000e+00 3.955339999999999918e+02
-6.895430000000000348e+01 0.000000000000000000e+00 4.359599999999999795e+02
-1.220960000000000001e+01 7.901919999999999777e-02 4.372939999999999827e+02
-5.156869999999999976e+01 -4.891480000000000272e-01 1.376299999999999955e+02
-1.759600000000000009e+01 -1.941009999999999958e-01 1.791570000000000107e+01
-4.643229999999999791e+01 -1.230300000000000005e-01 1.525769999999999982e+01
-1.117280000000000051e+01 -4.501469999999999777e-02 5.985030000000000427e+02
-4.626449999999999818e+01 -4.610650000000000026e-01 1.735279999999999916e+02
-1.046969999999999956e+01 -2.720679999999999765e-01 1.798499999999999943e+02
-4.978090000000000259e+01 1.402979999999999894e+00 4.451899999999999977e+02
-1.224549999999999983e+01 6.792579999999999452e-02 2.374089999999999918e+02
